# .PCD v0.7 - Point Cloud Data file format
VERSION 0.7
FIELDS x y z rgb
SIZE 4 4 4 4
TYPE F F F F
COUNT 1 1 1 1
WIDTH 265
HEIGHT 1
VIEWPOINT 0 0 0 1 0 0 0
POINTS 265
DATA ascii
-0.18856573 -0.064104632 1.8267696 2.3418052e-38
-0.1935856 -0.044158779 1.8243623 2.3418052e-38
-0.16526532 -0.043480542 1.8236198 2.3418052e-38
-0.14790002 -0.038280003 1.8270001 2.3418052e-38
-0.19162735 -0.01794857 1.8242351 2.3418052e-38
-0.16502853 -0.015445431 1.8221242 2.3418052e-38
-0.13974115 -0.0074392003 1.82412 2.3418052e-38
-0.16131215 0.015069 1.8251503 2.3418052e-38
-0.13500547 0.015533049 1.823108 2.3418052e-38
-0.1168522 0.021655623 1.8239999 2.3418052e-38
-0.15138 0.040020004 1.8270003 2.3418052e-38
-0.13522516 0.045059875 1.8228571 2.3418052e-38
-0.10868487 0.046650689 1.8237369 2.3418052e-38
-0.12839779 0.068091683 1.8250434 2.3418052e-38
-0.1044095 0.07317023 1.8224788 2.3418052e-38
-0.084323674 0.080680966 1.8247144 2.3418052e-38
-0.095658191 0.096290931 1.8261821 2.3418052e-38
-0.077234358 0.1065947 1.825557 2.3418052e-38
-0.072289087 0.12527999 1.8270004 2.3418052e-38
-0.057420004 0.12354001 1.8270001 2.3418052e-38
-0.2124463 -0.097207442 1.8558002 2.3418052e-38
-0.19318472 -0.1020668 1.8522758 2.3418052e-38
-0.16649592 -0.10186875 1.8538159 2.3418052e-38
-0.14679144 -0.09196572 1.8570001 2.3418052e-38
-0.21920735 -0.072302043 1.848857 2.3418052e-38
-0.19640264 -0.078076161 1.8383341 2.3418052e-38
-0.16554663 -0.075071335 1.8403462 2.3418052e-38
-0.14572324 -0.072358467 1.8528754 2.3418052e-38
-0.21939898 -0.047564954 1.8420002 2.3418052e-38
-0.20546906 -0.055296674 1.8335001 2.3418052e-38
-0.16390318 -0.057220638 1.8329999 2.3418052e-38
-0.14355217 -0.046258815 1.8382505 2.3418052e-38
-0.2147052 -0.02251162 1.8368003 2.3418052e-38
-0.20252717 -0.013468369 1.8332144 2.3418052e-38
-0.15187716 -0.029677145 1.8329999 2.3418052e-38
-0.13848136 -0.020735625 1.8344003 2.3418052e-38
-0.18508634 0.0060228575 1.8353333 2.3418052e-38
-0.17736459 0.0094268573 1.8329999 2.3418052e-38
-0.15686493 0.039403267 1.8329999 2.3418052e-38
-0.14838573 0.050625719 1.8329999 2.3418052e-38
-0.12759426 0.080607638 1.8353333 2.3418052e-38
-0.11473 0.08677572 1.8345001 2.3418052e-38
-0.075065717 0.089031436 1.8329999 2.3418052e-38
-0.1226 0.092825726 1.8390001 2.3418052e-38
-0.10432376 0.10517018 1.8338051 2.3418052e-38
-0.085540012 0.10823429 1.8329999 2.3418052e-38
-0.096014291 0.12244941 1.8329999 2.3418052e-38
-0.071189493 0.13681847 1.8348389 2.3418052e-38
-0.052088868 0.13924488 1.8397002 2.3418052e-38
-0.065923855 0.16305837 1.8439617 2.3418052e-38
-0.047575615 0.16518801 1.8451663 2.3418052e-38
-0.052674286 0.18083858 1.8435001 2.3418052e-38
-0.21565716 -0.15455429 1.8870001 2.3418052e-38
-0.19406243 -0.15590927 1.8852503 2.3418052e-38
-0.16775627 -0.15495804 1.8864374 2.3418052e-38
-0.13917872 -0.1535559 1.8870001 2.3418052e-38
-0.2426143 -0.12040858 1.8870001 2.3418052e-38
-0.22383405 -0.13398403 1.8812833 2.3418052e-38
-0.19506264 -0.13598588 1.8730434 2.3418052e-38
-0.16503429 -0.13537739 1.8754921 2.3418052e-38
-0.13446662 -0.13480237 1.884539 2.3418052e-38
-0.10593923 -0.12855683 1.8869264 2.3418052e-38
-0.075794771 -0.12924239 1.8848336 2.3418052e-38
-0.24256611 -0.10421608 1.8866251 2.3418052e-38
-0.22553663 -0.10587156 1.8706937 2.3418052e-38
-0.19804353 -0.1155578 1.8603332 2.3418052e-38
-0.1595211 -0.11403322 1.8611248 2.3418052e-38
-0.13397205 -0.10441806 1.8767084 2.3418052e-38
-0.10558873 -0.10599022 1.8862777 2.3418052e-38
-0.077026382 -0.10151769 1.8869995 2.3418052e-38
-0.058278784 -0.099356338 1.8870001 2.3418052e-38
-0.24316043 -0.073637962 1.8792858 2.3418052e-38
-0.23238122 -0.078049488 1.8664088 2.3418052e-38
-0.13047725 -0.076637208 1.8730631 2.3418052e-38
-0.11118324 -0.07559979 1.8869998 2.3418052e-38
-0.073060773 -0.074996158 1.8869996 2.3418052e-38
-0.049957626 -0.070444658 1.8868997 2.3418052e-38
-0.24107145 -0.058928572 1.875 2.3418052e-38
-0.23648667 -0.05512286 1.8670002 2.3418052e-38
-0.13222221 -0.056040227 1.8703848 2.3418052e-38
-0.095248573 -0.05930572 1.8870001 2.3418052e-38
-0.068965815 -0.0499302 1.8856999 2.3418052e-38
-0.044811323 -0.044809155 1.8817402 2.3418052e-38
-0.016807441 -0.040738273 1.8835626 2.3418052e-38
0.0084830485 -0.033833526 1.8828003 2.3418052e-38
-0.2426143 -0.010782858 1.8870001 2.3418052e-38
-0.22825643 -0.0085528987 1.8828861 2.3418052e-38
-0.2069086 -0.0026842859 1.881 2.3418052e-38
-0.041384082 -0.02014751 1.8842573 2.3418052e-38
-0.012999209 -0.016183656 1.8800558 2.3418052e-38
0.0123336 -0.014855926 1.8802782 2.3418052e-38
-0.22220506 0.013250716 1.8859999 2.3418052e-38
-0.19910878 0.01605094 1.8805532 2.3418052e-38
-0.17791715 0.026957145 1.8870001 2.3418052e-38
0.0089714285 0.0017942858 1.8840001 2.3418052e-38
-0.21346065 0.03414572 1.8870001 2.3418052e-38
-0.19227214 0.042508077 1.8867931 2.3418052e-38
-0.17003754 0.049656838 1.8857837 2.3418052e-38
-0.18270953 0.064098105 1.8870002 2.3418052e-38
-0.16324222 0.073616661 1.8834711 2.3418052e-38
-0.14680287 0.080928579 1.8797998 2.3418052e-38
-0.15802571 0.091581434 1.8855 2.3418052e-38
-0.13254009 0.10274485 1.8784865 2.3418052e-38
-0.11839787 0.11035929 1.8765001 2.3418052e-38
-0.12309674 0.12258489 1.8810003 2.3418052e-38
-0.11638096 0.12354286 1.8800001 2.3418052e-38
-0.22198722 -0.19139349 1.9157696 2.3418052e-38
-0.19594043 -0.19500408 1.9103796 2.3418052e-38
-0.16642141 -0.19351293 1.9111638 2.3418052e-38
-0.13704212 -0.18525296 1.915895 2.3418052e-38
-0.11745429 -0.18318 1.9170002 2.3418052e-38
-0.24725947 -0.15971798 1.9150002 2.3418052e-38
-0.22612494 -0.16642299 1.9052943 2.3418052e-38
-0.19562447 -0.17154813 1.898854 2.3418052e-38
-0.16460201 -0.17014971 1.8984715 2.3418052e-38
-0.13475987 -0.16666861 1.8986185 2.3418052e-38
-0.1086648 -0.16136464 1.8997946 2.3418052e-38
-0.25188816 -0.13368076 1.908659 2.3418052e-38
-0.23484206 -0.14358899 1.8947146 2.3418052e-38
-0.12079144 -0.14963716 1.8930001 2.3418052e-38
-0.10231208 -0.14349458 1.893291 2.3418052e-38
-0.083023667 -0.13024573 1.8931435 2.3418052e-38
-0.25225243 -0.10690871 1.8999603 2.3418052e-38
-0.097068295 -0.094906017 1.8945 2.3418052e-38
-0.072550207 -0.1101532 1.8931435 2.3418052e-38
-0.05377315 -0.099608012 1.8948001 2.3418052e-38
-0.25091204 -0.087257147 1.9008 2.3418052e-38
-0.12079144 -0.06310001 1.8930001 2.3418052e-38
-0.098419257 -0.075617582 1.8930892 2.3418052e-38
-0.086236671 -0.077823341 1.8930001 2.3418052e-38
-0.044363819 -0.077669717 1.8936007 2.3418052e-38
-0.024879429 -0.065263435 1.8930001 2.3418052e-38
-0.25842518 -0.03633875 1.9074376 2.3418052e-38
-0.12098287 -0.059588574 1.8960001 2.3418052e-38
-0.10371072 -0.05861643 1.8937501 2.3418052e-38
-0.083532378 -0.054686673 1.8930001 2.3418052e-38
-0.012346374 -0.051470779 1.8936925 2.3418052e-38
-0.25185198 -0.016401041 1.899091 2.3418052e-38
-0.23978001 -0.023437144 1.8930001 2.3418052e-38
-0.2462962 0.0097155105 1.8955715 2.3418052e-38
-0.23549718 0.016238095 1.8940001 2.3418052e-38
-0.1893 0.059494291 1.8930001 2.3418052e-38
-0.24912004 -0.24768004 1.9439996 2.3418052e-38
-0.22709003 -0.24498495 1.943833 2.3418052e-38
-0.19962072 -0.24404883 1.94375 2.3418052e-38
-0.24991576 -0.22529237 1.941658 2.3418052e-38
-0.22463423 -0.22464475 1.9332185 2.3418052e-38
-0.19518083 -0.22423619 1.931381 2.3418052e-38
-0.16803545 -0.2188884 1.9330835 2.3418052e-38
-0.14927143 -0.21192858 1.9350002 2.3418052e-38
-0.27459359 -0.19067359 1.9437497 2.3418052e-38
-0.25499818 -0.19563973 1.9350514 2.3418052e-38
-0.23338157 -0.19714102 1.9219503 2.3418052e-38
-0.15436859 -0.2044048 1.9220002 2.3418052e-38
-0.13584448 -0.19757621 1.9229121 2.3418052e-38
-0.1159924 -0.18742192 1.9230001 2.3418052e-38
-0.27629524 -0.16432977 1.9405003 2.3418052e-38
-0.25876421 -0.16777116 1.9260859 2.3418052e-38
-0.10634787 -0.17235929 1.9252501 2.3418052e-38
-0.27628928 -0.14285564 1.9373686 2.3418052e-38
-0.26371354 -0.14176704 1.9240912 2.3418052e-38
-0.30268002 -0.30268002 1.9740002 2.3418052e-38
-0.28388229 -0.31070516 1.9715002 2.3418052e-38
-0.2619783 -0.3079946 1.9718997 2.3418052e-38
-0.30545053 -0.2842758 1.9740002 2.3418052e-38
-0.28445518 -0.28444475 1.964859 2.3418052e-38
-0.2540721 -0.28492454 1.9604242 2.3418052e-38
-0.22955596 -0.27928239 1.963742 2.3418052e-38
-0.30490535 -0.25903833 1.9738002 2.3418052e-38
-0.2843008 -0.25437894 1.9623337 2.3418052e-38
-0.25646114 -0.25976187 1.9520833 2.3418052e-38
-0.22522244 -0.25899422 1.9536591 2.3418052e-38
-0.20145798 -0.25082615 1.9508572 2.3418052e-38
-0.30268002 -0.22533144 1.9740003 2.3418052e-38
-0.28568813 -0.22457129 1.9609284 2.3418052e-38
-0.26572162 -0.22686887 1.9510908 2.3418052e-38
-0.2859726 -0.19748062 1.9571469 2.3418052e-38
-0.26928574 -0.20985715 1.95 2.3418052e-38
-0.28591299 -0.16490595 1.9523081 2.3418052e-38
-0.28785715 -0.1467143 1.95 2.3418052e-38
-0.33067715 -0.36317146 2.007 2.3418052e-38
-0.31350774 -0.3686268 2.0048923 2.3418052e-38
-0.29153141 -0.36477968 2.0039997 2.3418052e-38
-0.33612257 -0.3433165 2.0059412 2.3418052e-38
-0.31529614 -0.34397143 1.9973892 2.3418052e-38
-0.28536609 -0.34297287 1.9928493 2.3418052e-38
-0.26351455 -0.33673173 2.0037274 2.3418052e-38
-0.33769354 -0.31478131 2.0042725 2.3418052e-38
-0.31637642 -0.31553039 1.9890547 2.3418052e-38
-0.28842115 -0.32384571 1.9813848 2.3418052e-38
-0.2544232 -0.31852239 1.990258 2.3418052e-38
-0.33568662 -0.2892985 2.0035386 2.3418052e-38
-0.3208079 -0.28550994 1.9868822 2.3418052e-38
-0.33322576 -0.25740576 2.0070002 2.3418052e-38
-0.31886268 -0.25429675 1.9877145 2.3418052e-38
-0.33067715 -0.23892859 2.007 2.3418052e-38
-0.31432024 -0.22625965 1.9862731 2.3418052e-38
-0.30845454 -0.19680972 1.9877589 2.3418052e-38
-0.29690114 -0.19051486 1.9806001 2.3418052e-38
-0.36707792 -0.42817754 2.0366251 2.3418052e-38
-0.34525946 -0.43371344 2.0359154 2.3418052e-38
-0.32235485 -0.42810339 2.0356364 2.3418052e-38
-0.36981112 -0.40340388 2.0329413 2.3418052e-38
-0.34497026 -0.40556788 2.0239811 2.3418052e-38
-0.31531769 -0.40576303 2.0246246 2.3418052e-38
-0.29496133 -0.39663875 2.0315456 2.3418052e-38
-0.36781392 -0.37808013 2.0322416 2.3418052e-38
-0.34435126 -0.37537611 2.017673 2.3418052e-38
-0.31556362 -0.38491693 2.0132501 2.3418052e-38
-0.28427941 -0.37632352 2.0206366 2.3418052e-38
-0.36531481 -0.34678909 2.0355 2.3418052e-38
-0.34934637 -0.34585607 2.0171611 2.3418052e-38
-0.27404785 -0.3554979 2.0122499 2.3418052e-38
-0.25799429 -0.33897555 2.0108576 2.3418052e-38
-0.36303306 -0.31519878 2.036 2.3418052e-38
-0.35190147 -0.31460983 2.0208001 2.3418052e-38
-0.34881508 -0.28410891 2.022727 2.3418052e-38
-0.36278003 -0.26384002 2.0370002 2.3418052e-38
-0.34763151 -0.2557078 2.0294256 2.3418052e-38
-0.34036389 -0.22348595 2.0271177 2.3418052e-38
-0.32742178 -0.21794893 2.0163751 2.3418052e-38
-0.33863938 -0.203527 2.0266666 2.3418052e-38
-0.32482317 -0.20142886 2.0181003 2.3418052e-38
-0.37457961 -0.46477753 2.0495689 2.3418052e-38
-0.34518749 -0.46605599 2.0506876 2.3418052e-38
-0.32111359 -0.46005911 2.0572259 2.3418052e-38
-0.39993498 -0.43509269 2.0591004 2.3418052e-38
-0.37811834 -0.43656468 2.0419717 2.3418052e-38
-0.34660572 -0.44763434 2.04 2.3418052e-38
-0.31275076 -0.43679839 2.0472441 2.3418052e-38
-0.29602453 -0.4262923 2.0545716 2.3418052e-38
-0.39758217 -0.40600359 2.0584502 2.3418052e-38
-0.38452572 -0.40835142 2.0430002 2.3418052e-38
-0.30114287 -0.4177143 2.04 2.3418052e-38
-0.28961039 -0.40546155 2.0452104 2.3418052e-38
-0.39460862 -0.37801033 2.0582309 2.3418052e-38
-0.38160455 -0.37410042 2.0458846 2.3418052e-38
-0.27556536 -0.38346246 2.0438571 2.3418052e-38
-0.37724149 -0.34460723 2.0480399 2.3418052e-38
-0.37312159 -0.31543866 2.046 2.3418052e-38
-0.36655182 -0.28720507 2.0445004 2.3418052e-38
-0.35942858 -0.27588573 2.04 2.3418052e-38
-0.35683811 -0.24674289 2.04 2.3418052e-38
-0.35330099 -0.23791048 2.0420001 2.3418052e-38
-0.32532614 -0.48992574 2.0804002 2.3418052e-38
-0.3109563 -0.46864504 2.076261 2.3418052e-38
-0.29777089 -0.46055433 2.0844002 2.3418052e-38
-0.41420504 -0.43294328 2.0722501 2.3418052e-38
-0.30162859 -0.4455429 2.0700002 2.3418052e-38
-0.2962136 -0.44186574 2.0804999 2.3418052e-38
-0.42651361 -0.40759251 2.09025 2.3418052e-38
-0.4123683 -0.40414247 2.0775559 2.3418052e-38
-0.40583843 -0.37445527 2.0821304 2.3418052e-38
-0.39661711 -0.35272628 2.0760002 2.3418052e-38
-0.38837144 -0.34697145 2.0700002 2.3418052e-38
-0.31564906 -0.49772972 2.1147006 2.3418052e-38
-0.28653443 -0.45864564 2.1176252 2.3418052e-38
-0.28142965 -0.44379294 2.1194999 2.3418052e-38
-0.42866671 -0.39933336 2.1000001 2.3418052e-38
-0.42200005 -0.38600001 2.1000001 2.3418052e-38
-0.2951324 -0.51631051 2.1570001 2.3418052e-38
-0.30405664 -0.49774742 2.1393528 2.3418052e-38
-0.29234004 -0.49290606 2.1507273 2.3418052e-38
-0.2877543 -0.47180223 2.1352501 2.3418052e-38
-0.28330448 -0.50057739 2.1616161 2.3418052e-38
